0.766239 0.385245 0.396664 
0.766365 0.346846 0.403455 
0.767632 0.307936 0.410521 
0.773796 0.264630 0.419131 
0.775677 0.227955 0.425887 
0.740694 0.226475 0.420146 
0.705871 0.225133 0.413075 
0.671646 0.153289 0.417234 
0.671639 0.188614 0.411003 
0.671252 0.223710 0.404711 
0.725897 0.461985 0.375678 
0.686400 0.466542 0.365832 
0.647467 0.471717 0.354264 
0.618307 0.481010 0.343479 
0.610493 0.521449 0.333724 
0.582415 0.536356 0.321044 
0.555308 0.553540 0.307366 
0.529085 0.572417 0.292823 
0.591038 0.493874 0.331726 
0.503176 0.592808 0.277232 
0.726754 0.422907 0.382746 
0.727377 0.384207 0.389697 
0.728736 0.345485 0.396803 
0.734496 0.300946 0.405812 
0.739138 0.262033 0.413578 
0.704654 0.260103 0.406629 
0.667404 0.256637 0.397863 
0.637136 0.151589 0.407587 
0.637146 0.186913 0.401361 
0.633572 0.221129 0.394218 
0.628326 0.253811 0.386802 
0.688242 0.427239 0.373221 
0.642986 0.432655 0.359811 
0.604289 0.449034 0.344356 
0.572299 0.466462 0.329505 
0.562687 0.508312 0.318333 
0.535396 0.524630 0.304032 
0.509016 0.542942 0.288809 
0.482856 0.562605 0.272487 
0.543682 0.479802 0.315509 
0.688683 0.383868 0.380978 
0.695813 0.335886 0.391183 
0.701184 0.296210 0.399455 
0.662580 0.291096 0.390457 
0.622939 0.284708 0.379614 
0.602893 0.149659 0.396656 
0.602904 0.185033 0.390423 
0.602851 0.220267 0.384192 
0.598055 0.251702 0.376956 
0.593512 0.280200 0.370301 
0.630781 0.384825 0.364480 
0.583815 0.416291 0.342740 
0.552729 0.435847 0.327056 
0.525334 0.451021 0.312549 
0.516234 0.495105 0.300621 
0.489767 0.512918 0.284740 
0.463390 0.531940 0.267683 
0.497681 0.465077 0.297089 
0.652135 0.327771 0.381021 
0.613765 0.316376 0.370996 
0.586659 0.303940 0.363609 
0.569131 0.147516 0.384507 
0.569142 0.182909 0.378271 
0.569159 0.218200 0.372054 
0.569015 0.249719 0.366441 
0.566883 0.273302 0.361445 
0.567078 0.292213 0.358185 
0.591196 0.354790 0.356309 
0.558013 0.388692 0.337538 
0.534479 0.408156 0.324168 
0.507682 0.422103 0.309485 
0.479911 0.434580 0.293552 
0.471051 0.482269 0.280528 
0.444526 0.500711 0.262747 
0.453061 0.451150 0.276278 
0.563965 0.332152 0.349906 
0.536656 0.308394 0.342710 
0.535872 0.145163 0.371150 
0.535884 0.180549 0.364916 
0.535897 0.215881 0.358691 
0.535788 0.251092 0.352435 
0.535963 0.277344 0.347882 
0.534390 0.360312 0.332569 
0.510830 0.377282 0.318875 
0.488403 0.390580 0.305628 
0.463019 0.403527 0.290126 
0.435955 0.419605 0.272121 
0.426329 0.469032 0.257732 
0.408898 0.437036 0.252714 
0.514263 0.337640 0.327472 
0.498584 0.323484 0.322497 
0.502304 0.278873 0.332168 
0.502191 0.303150 0.327835 
0.503111 0.142592 0.356585 
0.503123 0.177986 0.350350 
0.503140 0.213349 0.344123 
0.503137 0.248620 0.337902 
0.493255 0.350480 0.315124 
0.469935 0.361265 0.301274 
0.446886 0.371909 0.286795 
0.419588 0.387483 0.268048 
0.392059 0.404606 0.247647 
0.482669 0.328941 0.313594 
0.476421 0.305629 0.314486 
0.470974 0.245920 0.322161 
0.473914 0.277367 0.318162 
0.470917 0.139816 0.340840 
0.470929 0.175217 0.334605 
0.470945 0.210596 0.328374 
0.458574 0.335977 0.299622 
0.433833 0.344566 0.284115 
0.404058 0.354851 0.264155 
0.375807 0.371756 0.242558 
0.450345 0.308394 0.299937 
0.444310 0.274747 0.302468 
0.439367 0.207632 0.311473 
0.442021 0.241325 0.307056 
0.439335 0.136838 0.323938 
0.439347 0.172239 0.317702 
0.423481 0.312715 0.283588 
0.391385 0.321501 0.261858 
0.360203 0.338559 0.237511 
0.416555 0.273752 0.286251 
0.411844 0.237252 0.289779 
0.408386 0.169070 0.299642 
0.408403 0.204482 0.293409 
0.408373 0.133653 0.305880 
0.373384 0.270266 0.258791 
0.340868 0.302258 0.229759 
0.379749 0.233256 0.269665 
0.378164 0.201104 0.274256 
0.378142 0.130275 0.286730 
0.378154 0.165691 0.280494 
0.359656 0.225354 0.257081 
0.343397 0.242847 0.242129 
0.321398 0.266819 0.221001 
0.353662 0.200345 0.257176 
0.348661 0.162122 0.260262 
0.348649 0.126709 0.266497 
0.324652 0.204006 0.234639 
0.304288 0.233946 0.212945 
0.323745 0.161447 0.241432 
0.319961 0.122956 0.245228 
0.301147 0.189960 0.218088 
0.285255 0.204841 0.201897 
0.297048 0.159532 0.220010 
0.292065 0.119025 0.222914 
0.266181 0.166717 0.191535 
0.264981 0.114906 0.199565 
0.238827 0.110623 0.175283 
0.234645 0.143412 0.165323 
0.213604 0.106181 0.150073 
0.211805 0.128223 0.144257 
0.189393 0.101585 0.124020 
0.192380 0.116737 0.124773 
0.166117 0.096830 0.097044 
0.173430 0.106028 0.104387 
-0.101900 0.523127 0.477631 
-0.101900 0.522860 0.444198 
-0.101900 0.522418 0.410767 
-0.101900 0.521800 0.377339 
-0.101900 0.521007 0.343914 
-0.101900 0.520034 0.310494 
-0.101900 0.518887 0.277080 
-0.125113 0.495879 0.477020 
-0.125113 0.495605 0.442978 
-0.125114 0.495143 0.408939 
-0.125115 0.494499 0.374904 
-0.125115 0.493671 0.340875 
-0.125116 0.492661 0.306851 
-0.125116 0.491463 0.272835 
-0.148325 0.468635 0.476413 
-0.148326 0.468346 0.441763 
-0.148326 0.467869 0.407117 
-0.148327 0.467198 0.372476 
-0.148328 0.466336 0.337841 
-0.148328 0.465283 0.303213 
-0.148329 0.464040 0.268592 
-0.171536 0.441391 0.475808 
-0.171537 0.441094 0.440553 
-0.171538 0.440594 0.405301 
-0.171538 0.439897 0.370054 
-0.171539 0.439000 0.334813 
-0.171539 0.437906 0.299579 
-0.171540 0.436613 0.264352 
0.005320 -0.899696 -0.315941 
0.005320 -0.855989 -0.323314 
0.005320 -0.812282 -0.330702 
0.005320 -0.893568 -0.278708 
0.005320 -0.849803 -0.285756 
0.005320 -0.806047 -0.292835 
0.005320 -0.887722 -0.241430 
0.005320 -0.843908 -0.248153 
0.005320 -0.800098 -0.254922 
0.005320 -0.882158 -0.204108 
0.005320 -0.838294 -0.210506 
0.005320 -0.794438 -0.216965 
0.005320 -0.876876 -0.166745 
0.005320 -0.832967 -0.172818 
0.005320 -0.789065 -0.178966 
0.005320 -0.871880 -0.129343 
0.005320 -0.827925 -0.135092 
0.005320 -0.783982 -0.140929 
0.005320 -0.779188 -0.102855 
0.005320 -0.823170 -0.097328 
0.005320 -0.867166 -0.091904 
0.005320 -0.774680 -0.064746 
0.005320 -0.818704 -0.059531 
0.005320 -0.862735 -0.054430 
0.005320 -0.858578 -0.016832 
0.005320 -0.814536 -0.021850 
0.005320 -0.770482 -0.026784 
0.005320 -0.854719 0.020705 
0.005320 -0.810638 0.016029 
0.005320 -0.766550 0.011407 
0.005320 -0.851142 0.058270 
0.005320 -0.807027 0.053937 
0.005320 -0.762908 0.049626 
0.005320 -0.847851 0.095860 
0.005320 -0.803701 0.091869 
0.005320 -0.759556 0.087871 
0.005320 -0.844842 0.133474 
0.005320 -0.800666 0.129825 
0.005320 -0.756494 0.126140 
0.005320 -0.842123 0.171110 
0.005320 -0.797920 0.167802 
0.005320 -0.753721 0.164430 
0.005320 -0.839686 0.208766 
0.005320 -0.795464 0.205737 
0.005320 -0.751250 0.202618 
0.005320 -0.837535 0.246439 
0.005320 -0.793302 0.243598 
0.005320 -0.749061 0.240863 
0.005320 -0.835674 0.284127 
0.005320 -0.791418 0.281619 
0.005320 -0.747158 0.279197 
0.005320 -0.834095 0.321828 
0.005320 -0.789824 0.319652 
0.005320 -0.745545 0.317544 
0.005320 -0.832806 0.359541 
0.005320 -0.788516 0.357696 
0.005320 -0.744225 0.355901 
0.005320 -0.831803 0.397262 
0.005320 -0.787498 0.395748 
0.005320 -0.743196 0.394266 
0.005320 -0.831083 0.434989 
0.005320 -0.786769 0.433807 
0.005320 -0.742456 0.432639 
0.005320 -0.830652 0.472721 
0.005320 -0.786327 0.471870 
0.005320 -0.742006 0.471015 
-0.090019 -0.993708 -0.300068 
-0.053665 -0.986603 -0.301265 
-0.022908 -0.966467 -0.304658 
-0.002247 -0.936401 -0.309725 
-0.090019 -0.987690 -0.263519 
-0.053670 -0.980581 -0.264661 
-0.022912 -0.960423 -0.267901 
-0.002246 -0.930307 -0.272741 
-0.090019 -0.981950 -0.226924 
-0.053675 -0.974834 -0.228013 
-0.022915 -0.954653 -0.231099 
-0.002245 -0.924499 -0.235712 
-0.090019 -0.976489 -0.190288 
-0.053679 -0.969366 -0.191322 
-0.022919 -0.949165 -0.194255 
-0.002244 -0.918970 -0.198639 
-0.090019 -0.971307 -0.153611 
-0.053684 -0.964179 -0.154591 
-0.022922 -0.943956 -0.157370 
-0.002243 -0.913722 -0.161526 
-0.090019 -0.966403 -0.116896 
-0.053688 -0.959267 -0.117821 
-0.022926 -0.939029 -0.120447 
-0.002242 -0.908757 -0.124374 
-0.090019 -0.961777 -0.080144 
-0.053693 -0.954638 -0.081015 
-0.022930 -0.934380 -0.083487 
-0.002240 -0.904074 -0.087185 
-0.090019 -0.957429 -0.043359 
-0.053697 -0.950287 -0.044175 
-0.022934 -0.930014 -0.046493 
-0.002239 -0.899673 -0.049962 
-0.090019 -0.953364 -0.006541 
-0.053702 -0.946214 -0.007303 
-0.022938 -0.925926 -0.009467 
-0.002238 -0.895555 -0.012706 
-0.090019 -0.949573 0.030306 
-0.053707 -0.942423 0.029599 
-0.022942 -0.922120 0.027589 
-0.002237 -0.891718 0.024580 
-0.090019 -0.946065 0.067181 
-0.053711 -0.938911 0.066528 
-0.022946 -0.918596 0.064673 
-0.002236 -0.888164 0.061894 
-0.090019 -0.942839 0.104081 
-0.053716 -0.935681 0.103483 
-0.022950 -0.915354 0.101782 
-0.002235 -0.884896 0.099234 
-0.090019 -0.939891 0.141005 
-0.053721 -0.932729 0.140461 
-0.022954 -0.912391 0.138915 
-0.002234 -0.881910 0.136597 
-0.090019 -0.937221 0.177950 
-0.053725 -0.930060 0.177461 
-0.022959 -0.909714 0.176069 
-0.002232 -0.879206 0.173982 
-0.090019 -0.934834 0.214915 
-0.053730 -0.927668 0.214480 
-0.022963 -0.907319 0.213242 
-0.002231 -0.876788 0.211387 
-0.090019 -0.932725 0.251896 
-0.053734 -0.925563 0.251515 
-0.022968 -0.905203 0.250433 
-0.002230 -0.874652 0.248809 
-0.090019 -0.930902 0.288893 
-0.053739 -0.923737 0.288566 
-0.022972 -0.903372 0.287638 
-0.002229 -0.872803 0.286246 
-0.090019 -0.929354 0.325902 
-0.053744 -0.922188 0.325630 
-0.022977 -0.901820 0.324857 
-0.002228 -0.871236 0.323696 
-0.090019 -0.928092 0.362922 
-0.053748 -0.920926 0.362704 
-0.022982 -0.900554 0.362086 
-0.002227 -0.869954 0.361156 
-0.090019 -0.927108 0.399950 
-0.053752 -0.919942 0.399787 
-0.022986 -0.899570 0.399323 
-0.002226 -0.868955 0.398626 
-0.090019 -0.926402 0.436985 
-0.053757 -0.919240 0.436876 
-0.022991 -0.898869 0.436567 
-0.002224 -0.868242 0.436102 
-0.090019 -0.925983 0.474024 
-0.053762 -0.918821 0.473970 
-0.022996 -0.898449 0.473815 
-0.002223 -0.867815 0.473582 
-0.318603 -0.993708 -0.300068 
-0.280506 -0.993708 -0.300068 
-0.242408 -0.993708 -0.300068 
-0.204311 -0.993708 -0.300068 
-0.166213 -0.993708 -0.300068 
-0.128116 -0.993708 -0.300068 
-0.318603 -0.987690 -0.263519 
-0.280506 -0.987690 -0.263519 
-0.242408 -0.987690 -0.263519 
-0.204311 -0.987690 -0.263519 
-0.166213 -0.987690 -0.263519 
-0.128116 -0.987690 -0.263519 
-0.318603 -0.981950 -0.226924 
-0.280506 -0.981950 -0.226925 
-0.242408 -0.981950 -0.226924 
-0.204311 -0.981950 -0.226924 
-0.166213 -0.981950 -0.226924 
-0.128116 -0.981950 -0.226924 
-0.318603 -0.976489 -0.190288 
-0.280506 -0.976489 -0.190288 
-0.242408 -0.976489 -0.190288 
-0.204311 -0.976489 -0.190288 
-0.166213 -0.976489 -0.190288 
-0.128116 -0.976489 -0.190288 
-0.318603 -0.971307 -0.153611 
-0.280506 -0.971307 -0.153611 
-0.242408 -0.971307 -0.153611 
-0.204311 -0.971307 -0.153611 
-0.166213 -0.971307 -0.153611 
-0.128116 -0.971307 -0.153611 
-0.318603 -0.966403 -0.116896 
-0.280506 -0.966403 -0.116896 
-0.242408 -0.966403 -0.116896 
-0.204311 -0.966403 -0.116896 
-0.166213 -0.966403 -0.116896 
-0.128116 -0.966403 -0.116896 
-0.318603 -0.961777 -0.080144 
-0.280506 -0.961777 -0.080144 
-0.242408 -0.961777 -0.080144 
-0.204311 -0.961777 -0.080144 
-0.166213 -0.961777 -0.080144 
-0.128116 -0.961777 -0.080144 
-0.318603 -0.957429 -0.043359 
-0.280506 -0.957429 -0.043359 
-0.242408 -0.957429 -0.043359 
-0.204311 -0.957429 -0.043359 
-0.166213 -0.957429 -0.043359 
-0.128116 -0.957429 -0.043359 
-0.318603 -0.953364 -0.006541 
-0.280506 -0.953364 -0.006541 
-0.242408 -0.953364 -0.006541 
-0.204311 -0.953364 -0.006541 
-0.166213 -0.953364 -0.006541 
-0.128116 -0.953364 -0.006541 
-0.318603 -0.949573 0.030306 
-0.280506 -0.949573 0.030306 
-0.242408 -0.949573 0.030306 
-0.204311 -0.949573 0.030306 
-0.166213 -0.949573 0.030306 
-0.128116 -0.949573 0.030306 
-0.318603 -0.946065 0.067181 
-0.280506 -0.946065 0.067181 
-0.242408 -0.946065 0.067181 
-0.204311 -0.946065 0.067181 
-0.166213 -0.946065 0.067181 
-0.128116 -0.946065 0.067181 
-0.318603 -0.942839 0.104081 
-0.280506 -0.942839 0.104081 
-0.242408 -0.942839 0.104081 
-0.204311 -0.942839 0.104081 
-0.166213 -0.942839 0.104081 
-0.128116 -0.942839 0.104081 
-0.318603 -0.939891 0.141005 
-0.280506 -0.939891 0.141005 
-0.242408 -0.939891 0.141005 
-0.204311 -0.939891 0.141005 
-0.166213 -0.939891 0.141005 
-0.128116 -0.939891 0.141005 
-0.318603 -0.937221 0.177950 
-0.280506 -0.937221 0.177950 
-0.242408 -0.937221 0.177950 
-0.204311 -0.937221 0.177950 
-0.166213 -0.937221 0.177950 
-0.128116 -0.937221 0.177950 
-0.318603 -0.934834 0.214915 
-0.280506 -0.934834 0.214915 
-0.242408 -0.934834 0.214915 
-0.204311 -0.934834 0.214915 
-0.166213 -0.934834 0.214915 
-0.128116 -0.934834 0.214915 
-0.318603 -0.932725 0.251896 
-0.280506 -0.932725 0.251896 
-0.242408 -0.932725 0.251896 
-0.204311 -0.932725 0.251896 
-0.166213 -0.932725 0.251896 
-0.128116 -0.932725 0.251896 
-0.318603 -0.930902 0.288893 
-0.280506 -0.930902 0.288893 
-0.242408 -0.930902 0.288893 
-0.204311 -0.930902 0.288893 
-0.166213 -0.930902 0.288893 
-0.128116 -0.930902 0.288893 
-0.318603 -0.929354 0.325902 
-0.280506 -0.929354 0.325902 
-0.242408 -0.929354 0.325902 
-0.204311 -0.929354 0.325902 
-0.166213 -0.929354 0.325902 
-0.128116 -0.929354 0.325902 
-0.318603 -0.928092 0.362922 
-0.280506 -0.928092 0.362922 
-0.242408 -0.928092 0.362922 
-0.204311 -0.928092 0.362922 
-0.166213 -0.928092 0.362922 
-0.128116 -0.928092 0.362922 
-0.318603 -0.927108 0.399950 
-0.280506 -0.927108 0.399950 
-0.242408 -0.927108 0.399950 
-0.204311 -0.927108 0.399950 
-0.166213 -0.927108 0.399950 
-0.128116 -0.927108 0.399950 
-0.318603 -0.926402 0.436985 
-0.280506 -0.926402 0.436985 
-0.242408 -0.926402 0.436985 
-0.204311 -0.926402 0.436985 
-0.166213 -0.926402 0.436985 
-0.128116 -0.926402 0.436985 
-0.318603 -0.925983 0.474024 
-0.280506 -0.925983 0.474024 
-0.242408 -0.925983 0.474024 
-0.204311 -0.925983 0.474024 
-0.166213 -0.925983 0.474024 
-0.128116 -0.925983 0.474024 
-0.413942 -0.899692 -0.315911 
-0.406718 -0.935589 -0.309861 
-0.386145 -0.966044 -0.304730 
-0.355445 -0.986405 -0.301299 
-0.413942 -0.893560 -0.278647 
-0.406717 -0.929503 -0.272870 
-0.386147 -0.959992 -0.267970 
-0.355447 -0.980375 -0.264694 
-0.413942 -0.887710 -0.241338 
-0.406716 -0.923699 -0.235834 
-0.386148 -0.954218 -0.231166 
-0.355449 -0.974628 -0.228044 
-0.413942 -0.882142 -0.203986 
-0.406715 -0.918173 -0.198755 
-0.386150 -0.948723 -0.194319 
-0.355451 -0.969160 -0.191352 
-0.413942 -0.876857 -0.166593 
-0.406714 -0.912929 -0.161635 
-0.386151 -0.943510 -0.157432 
-0.355452 -0.963966 -0.154620 
-0.413942 -0.871857 -0.129160 
-0.406713 -0.907968 -0.124476 
-0.386152 -0.938575 -0.120505 
-0.355454 -0.959054 -0.117849 
-0.413942 -0.867140 -0.091691 
-0.406712 -0.903288 -0.087280 
-0.386153 -0.933923 -0.083543 
-0.355456 -0.954420 -0.081042 
-0.413942 -0.862708 -0.054187 
-0.406711 -0.898891 -0.050051 
-0.386154 -0.929549 -0.046546 
-0.355458 -0.950065 -0.044200 
-0.413942 -0.858559 -0.016651 
-0.406710 -0.894780 -0.012788 
-0.386155 -0.925457 -0.009517 
-0.355460 -0.945993 -0.007327 
-0.413942 -0.854700 0.020916 
-0.406709 -0.890948 0.024504 
-0.386156 -0.921647 0.027542 
-0.355462 -0.942198 0.029576 
-0.413942 -0.851123 0.058511 
-0.406708 -0.887397 0.061824 
-0.386157 -0.918119 0.064629 
-0.355463 -0.938682 0.066507 
-0.413942 -0.847832 0.096133 
-0.406707 -0.884133 0.099170 
-0.386158 -0.914870 0.101742 
-0.355465 -0.935448 0.103463 
-0.413942 -0.844827 0.133778 
-0.406706 -0.881155 0.136540 
-0.386159 -0.911903 0.138878 
-0.355467 -0.932496 0.140443 
-0.413942 -0.842104 0.171444 
-0.406705 -0.878455 0.173931 
-0.386159 -0.909218 0.176035 
-0.355468 -0.929823 0.177444 
-0.413942 -0.839671 0.209131 
-0.406703 -0.876041 0.211341 
-0.386160 -0.906820 0.213212 
-0.355470 -0.927432 0.214465 
-0.413942 -0.837524 0.246834 
-0.406703 -0.873913 0.248769 
-0.386161 -0.904699 0.250406 
-0.355472 -0.925319 0.251503 
-0.413942 -0.835659 0.284553 
-0.406702 -0.872067 0.286212 
-0.386162 -0.902861 0.287615 
-0.355473 -0.923489 0.288555 
-0.413942 -0.834084 0.322285 
-0.406700 -0.870503 0.323668 
-0.386162 -0.901305 0.324837 
-0.355475 -0.921940 0.325620 
-0.413942 -0.832795 0.360028 
-0.406699 -0.869226 0.361134 
-0.386163 -0.900035 0.362070 
-0.355477 -0.920674 0.362697 
-0.413942 -0.831792 0.397780 
-0.406698 -0.868234 0.398610 
-0.386163 -0.899044 0.399311 
-0.355479 -0.919687 0.399781 
-0.413942 -0.831075 0.435538 
-0.406697 -0.867525 0.436091 
-0.386163 -0.898338 0.436559 
-0.355480 -0.918985 0.436872 
-0.413942 -0.830648 0.473300 
-0.406696 -0.867102 0.473577 
-0.386164 -0.897911 0.473811 
-0.355482 -0.918562 0.473968 
-0.413942 -0.588491 0.471471 
-0.413942 -0.588941 0.431879 
-0.413942 -0.589693 0.392291 
-0.413942 -0.590741 0.352710 
-0.413942 -0.592091 0.313139 
-0.413942 -0.593743 0.273578 
-0.413942 -0.595695 0.234032 
-0.413942 -0.597945 0.194501 
-0.413942 -0.600497 0.154989 
-0.413942 -0.603349 0.115497 
-0.413942 -0.606503 0.076028 
-0.413942 -0.609954 0.036584 
-0.413942 -0.613707 -0.002833 
-0.413942 -0.617753 -0.042220 
-0.413942 -0.622108 -0.081645 
-0.413942 -0.626757 -0.120967 
-0.413942 -0.631699 -0.160251 
-0.413942 -0.636939 -0.199497 
-0.413942 -0.642480 -0.238702 
-0.413942 -0.648318 -0.277864 
-0.413942 -0.654451 -0.316981 
-0.413942 -0.660884 -0.356050 
-0.413942 -0.628850 0.471772 
-0.413942 -0.629296 0.432481 
-0.413942 -0.630044 0.393194 
-0.413942 -0.631085 0.353914 
-0.413942 -0.632424 0.314644 
-0.413942 -0.634063 0.275385 
-0.413942 -0.636001 0.236139 
-0.413942 -0.638235 0.196909 
-0.413942 -0.640768 0.157697 
-0.413942 -0.643601 0.118506 
-0.413942 -0.646728 0.079337 
-0.413942 -0.650153 0.040181 
-0.413942 -0.653879 0.001043 
-0.413942 -0.657898 -0.038066 
-0.413942 -0.662223 -0.077181 
-0.413942 -0.666833 -0.116203 
-0.413942 -0.671741 -0.155189 
-0.413942 -0.676943 -0.194137 
-0.413942 -0.682442 -0.233043 
-0.413942 -0.688235 -0.271907 
-0.413942 -0.694325 -0.310726 
-0.413942 -0.700709 -0.349498 
-0.413942 -0.669209 0.472072 
-0.413942 -0.669655 0.433082 
-0.413942 -0.670391 0.394096 
-0.413942 -0.671429 0.355117 
-0.413942 -0.672756 0.316146 
-0.413942 -0.674384 0.277187 
-0.413942 -0.676306 0.238242 
-0.413942 -0.678526 0.199312 
-0.413942 -0.681039 0.160400 
-0.413942 -0.683849 0.121508 
-0.413942 -0.686953 0.082640 
-0.413942 -0.690355 0.043770 
-0.413942 -0.694054 0.004917 
-0.413942 -0.698043 -0.033906 
-0.413942 -0.702334 -0.072711 
-0.413942 -0.706910 -0.111434 
-0.413942 -0.711780 -0.150122 
-0.413942 -0.716943 -0.188771 
-0.413942 -0.722400 -0.227380 
-0.413942 -0.728151 -0.265947 
-0.413942 -0.734196 -0.304469 
-0.413942 -0.740534 -0.342944 
-0.413942 -0.709568 0.472372 
-0.413942 -0.710010 0.433682 
-0.413942 -0.710742 0.394996 
-0.413942 -0.711768 0.356316 
-0.413942 -0.713092 0.317646 
-0.413942 -0.714705 0.278987 
-0.413942 -0.716611 0.240341 
-0.413942 -0.718816 0.201711 
-0.413942 -0.721310 0.163098 
-0.413942 -0.724097 0.124506 
-0.413942 -0.727179 0.085936 
-0.413942 -0.730558 0.047348 
-0.413942 -0.734226 0.008790 
-0.413942 -0.738188 -0.029739 
-0.413942 -0.742444 -0.068233 
-0.413942 -0.746986 -0.106659 
-0.413942 -0.751822 -0.145049 
-0.413942 -0.756947 -0.183401 
-0.413942 -0.762363 -0.221713 
-0.413942 -0.768071 -0.259983 
-0.413942 -0.774066 -0.298208 
-0.413942 -0.780355 -0.336386 
-0.413942 -0.749930 0.472672 
-0.413942 -0.750365 0.434281 
-0.413942 -0.751094 0.395894 
-0.413942 -0.752112 0.357514 
-0.413942 -0.753424 0.319143 
-0.413942 -0.755025 0.280783 
-0.413942 -0.756917 0.242436 
-0.413942 -0.759106 0.204105 
-0.413942 -0.761581 0.165792 
-0.413942 -0.764346 0.127498 
-0.413942 -0.767404 0.089226 
-0.413942 -0.770760 0.050917 
-0.413942 -0.774402 0.012662 
-0.413942 -0.778334 -0.025565 
-0.413942 -0.782555 -0.063750 
-0.413942 -0.787063 -0.101878 
-0.413942 -0.791860 -0.139971 
-0.413942 -0.796948 -0.178026 
-0.413942 -0.802321 -0.216041 
-0.413942 -0.807988 -0.254014 
-0.413942 -0.813941 -0.291943 
-0.413942 -0.820180 -0.329827 
-0.413942 -0.790289 0.472971 
-0.413942 -0.790720 0.434879 
-0.413942 -0.791445 0.396791 
-0.413942 -0.792455 0.358710 
-0.413942 -0.793756 0.320637 
-0.413942 -0.795346 0.282576 
-0.413942 -0.797226 0.244528 
-0.413942 -0.799392 0.206495 
-0.413942 -0.801852 0.168480 
-0.413942 -0.804598 0.130484 
-0.413942 -0.807633 0.092511 
-0.413942 -0.810962 0.054476 
-0.413942 -0.814574 0.016532 
-0.413942 -0.818475 -0.021384 
-0.413942 -0.822662 -0.059260 
-0.413942 -0.827136 -0.097091 
-0.413942 -0.831899 -0.134887 
-0.413942 -0.836948 -0.172646 
-0.413942 -0.842283 -0.210365 
-0.413942 -0.847904 -0.248043 
-0.413942 -0.853811 -0.285676 
-0.413942 -0.860005 -0.323264 
-0.795296 -0.207148 0.468569 
-0.795296 -0.207632 0.426075 
-0.795296 -0.208437 0.383587 
-0.795296 -0.209566 0.341105 
-0.795296 -0.211019 0.298634 
-0.795296 -0.212792 0.256174 
-0.795296 -0.214886 0.213730 
-0.795296 -0.217304 0.171302 
-0.795296 -0.220042 0.128894 
-0.795296 -0.223104 0.086508 
-0.795296 -0.226487 0.044147 
-0.795296 -0.230190 0.001812 
-0.795296 -0.234217 -0.040493 
-0.795296 -0.238560 -0.082767 
-0.795296 -0.243228 -0.125006 
-0.795296 -0.248216 -0.167209 
-0.795296 -0.253521 -0.209373 
-0.795296 -0.259150 -0.251495 
-0.795296 -0.265095 -0.293573 
-0.795296 -0.271361 -0.335605 
-0.795296 -0.277943 -0.377588 
-0.795296 -0.284845 -0.419520 
-0.757917 -0.208986 0.468583 
-0.757917 -0.209471 0.426103 
-0.757917 -0.210275 0.383628 
-0.757917 -0.211404 0.341161 
-0.757917 -0.212853 0.298703 
-0.757917 -0.214626 0.256258 
-0.757917 -0.216720 0.213827 
-0.757917 -0.219138 0.171414 
-0.757917 -0.221876 0.129020 
-0.757917 -0.224935 0.086647 
-0.757917 -0.228317 0.044300 
-0.757917 -0.232020 0.001979 
-0.757917 -0.236043 -0.040312 
-0.757917 -0.240387 -0.082572 
-0.757917 -0.245051 -0.124798 
-0.757917 -0.250039 -0.166986 
-0.757917 -0.255344 -0.209136 
-0.757917 -0.260969 -0.251245 
-0.757917 -0.266910 -0.293309 
-0.757917 -0.273176 -0.335327 
-0.757917 -0.279758 -0.377297 
-0.757917 -0.286657 -0.419215 
-0.720898 -0.214478 0.468625 
-0.720898 -0.214958 0.426187 
-0.720898 -0.215763 0.383753 
-0.720898 -0.216892 0.341328 
-0.720898 -0.218341 0.298912 
-0.720898 -0.220110 0.256508 
-0.720898 -0.222204 0.214119 
-0.720898 -0.224618 0.171747 
-0.720898 -0.227352 0.129394 
-0.720898 -0.230411 0.087064 
-0.720898 -0.233790 0.044758 
-0.720898 -0.237489 0.002478 
-0.720898 -0.241508 -0.039772 
-0.720898 -0.245848 -0.081990 
-0.720898 -0.250508 -0.124174 
-0.720898 -0.255489 -0.166321 
-0.720898 -0.260789 -0.208430 
-0.720898 -0.266407 -0.250497 
-0.720898 -0.272345 -0.292520 
-0.720898 -0.278603 -0.334497 
-0.720898 -0.285181 -0.376425 
-0.720898 -0.292072 -0.418302 
-0.684595 -0.223569 0.468694 
-0.684595 -0.224054 0.426325 
-0.684595 -0.224854 0.383960 
-0.684595 -0.225979 0.341604 
-0.684595 -0.227429 0.299257 
-0.684595 -0.229194 0.256922 
-0.684595 -0.231284 0.214602 
-0.684595 -0.233694 0.172298 
-0.684595 -0.236425 0.130015 
-0.684595 -0.239479 0.087753 
-0.684595 -0.242851 0.045516 
-0.684595 -0.246542 0.003305 
-0.684595 -0.250558 -0.038876 
-0.684595 -0.254890 -0.081026 
-0.684595 -0.259542 -0.123141 
-0.684595 -0.264515 -0.165220 
-0.684595 -0.269805 -0.207260 
-0.684595 -0.275418 -0.249259 
-0.684595 -0.281345 -0.291214 
-0.684595 -0.287591 -0.333122 
-0.684595 -0.294158 -0.374983 
-0.684595 -0.301041 -0.416791 
-0.649358 -0.236177 0.468789 
-0.649358 -0.236657 0.426516 
-0.649358 -0.237462 0.384247 
-0.649358 -0.238583 0.341986 
-0.649358 -0.240025 0.299735 
-0.649358 -0.241790 0.257496 
-0.649358 -0.243876 0.215271 
-0.649358 -0.246279 0.173063 
-0.649358 -0.249006 0.130875 
-0.649358 -0.252049 0.088709 
-0.649358 -0.255416 0.046567 
-0.649358 -0.259100 0.004452 
-0.649358 -0.263104 -0.037634 
-0.649358 -0.267425 -0.079689 
-0.649358 -0.272070 -0.121709 
-0.649358 -0.277031 -0.163693 
-0.649358 -0.282309 -0.205638 
-0.649358 -0.287908 -0.247542 
-0.649358 -0.293822 -0.289402 
-0.649358 -0.300054 -0.331216 
-0.649358 -0.306605 -0.372982 
-0.649358 -0.313474 -0.414697 
-0.615527 -0.252178 0.468911 
-0.615527 -0.252659 0.426759 
-0.615527 -0.253456 0.384612 
-0.615527 -0.254577 0.342472 
-0.615527 -0.256015 0.300342 
-0.615527 -0.257773 0.258224 
-0.615527 -0.259851 0.216121 
-0.615527 -0.262250 0.174034 
-0.615527 -0.264969 0.131967 
-0.615527 -0.268005 0.089922 
-0.615527 -0.271361 0.047901 
-0.615527 -0.275033 0.005907 
-0.615527 -0.279026 -0.036058 
-0.615527 -0.283339 -0.077992 
-0.615527 -0.287965 -0.119892 
-0.615527 -0.292915 -0.161755 
-0.615527 -0.298178 -0.203580 
-0.615527 -0.303761 -0.245363 
-0.615527 -0.309656 -0.287103 
-0.615527 -0.315872 -0.328797 
-0.615527 -0.322405 -0.370443 
-0.615527 -0.329250 -0.412037 
-0.583427 -0.271418 0.469057 
-0.583427 -0.271895 0.427051 
-0.583427 -0.272692 0.385050 
-0.583427 -0.273809 0.343056 
-0.583427 -0.275243 0.301072 
-0.583427 -0.276993 0.259100 
-0.583427 -0.279068 0.217142 
-0.583427 -0.281455 0.175201 
-0.583427 -0.284163 0.133280 
-0.583427 -0.287191 0.091381 
-0.583427 -0.290531 0.049505 
-0.583427 -0.294192 0.007656 
-0.583427 -0.298174 -0.034163 
-0.583427 -0.302468 -0.075952 
-0.583427 -0.307082 -0.117706 
-0.583427 -0.312013 -0.159425 
-0.583427 -0.317257 -0.201104 
-0.583427 -0.322821 -0.242743 
-0.583427 -0.328697 -0.284339 
-0.583427 -0.334891 -0.325888 
-0.583427 -0.341400 -0.367390 
-0.583427 -0.348223 -0.408841 
-0.553367 -0.293712 0.469226 
-0.553367 -0.294185 0.427389 
-0.553367 -0.294982 0.385557 
-0.553367 -0.296091 0.343732 
-0.553367 -0.297522 0.301917 
-0.553367 -0.299264 0.260114 
-0.553367 -0.301327 0.218326 
-0.553367 -0.303707 0.176554 
-0.553367 -0.306407 0.134801 
-0.553367 -0.309420 0.093071 
-0.553367 -0.312749 0.051364 
-0.553367 -0.316395 0.009684 
-0.553367 -0.320357 -0.031968 
-0.553367 -0.324636 -0.073588 
-0.553367 -0.329231 -0.115174 
-0.553367 -0.334143 -0.156725 
-0.553367 -0.339368 -0.198237 
-0.553367 -0.344905 -0.239708 
-0.553367 -0.350759 -0.281136 
-0.553367 -0.356929 -0.322518 
-0.553367 -0.363412 -0.363852 
-0.553367 -0.370208 -0.405136 
-0.525638 -0.318843 0.469417 
-0.525638 -0.319316 0.427770 
-0.525638 -0.320105 0.386129 
-0.525638 -0.321211 0.344495 
-0.525638 -0.322634 0.302871 
-0.525638 -0.324373 0.261258 
-0.525638 -0.326424 0.219660 
-0.525638 -0.328796 0.178079 
-0.525638 -0.331477 0.136517 
-0.525638 -0.334479 0.094976 
-0.525638 -0.337793 0.053459 
-0.525638 -0.341423 0.011969 
-0.525638 -0.345370 -0.029492 
-0.525638 -0.349626 -0.070923 
-0.525638 -0.354202 -0.112320 
-0.525638 -0.359087 -0.153681 
-0.525638 -0.364289 -0.195003 
-0.525638 -0.369804 -0.236286 
-0.525638 -0.375631 -0.277524 
-0.525638 -0.381770 -0.318718 
-0.525638 -0.388227 -0.359864 
-0.525638 -0.394992 -0.400960 
-0.500505 -0.346571 0.469627 
-0.500505 -0.347040 0.428191 
-0.500505 -0.347830 0.386760 
-0.500505 -0.348928 0.345337 
-0.500505 -0.350343 0.303923 
-0.500505 -0.352074 0.262520 
-0.500505 -0.354115 0.221132 
-0.500505 -0.356471 0.179761 
-0.500505 -0.359145 0.138409 
-0.500505 -0.362127 0.097078 
-0.500505 -0.365426 0.055771 
-0.500505 -0.369037 0.014491 
-0.500505 -0.372965 -0.026762 
-0.500505 -0.377202 -0.067983 
-0.500505 -0.381751 -0.109170 
-0.500505 -0.386614 -0.150322 
-0.500505 -0.391789 -0.191436 
-0.500505 -0.397276 -0.232510 
-0.500505 -0.403073 -0.273540 
-0.500505 -0.409182 -0.314526 
-0.500505 -0.415604 -0.355464 
-0.500505 -0.422335 -0.396352 
-0.478212 -0.376630 0.469855 
-0.478212 -0.377099 0.428647 
-0.478212 -0.377881 0.387445 
-0.478212 -0.378975 0.346249 
-0.478212 -0.380382 0.305063 
-0.478212 -0.382102 0.263888 
-0.478212 -0.384135 0.222728 
-0.478212 -0.386476 0.181585 
-0.478212 -0.389134 0.140460 
-0.478212 -0.392101 0.099357 
-0.478212 -0.395381 0.058277 
-0.478212 -0.398973 0.017224 
-0.478212 -0.402875 -0.023801 
-0.478212 -0.407092 -0.064795 
-0.478212 -0.411615 -0.105756 
-0.478212 -0.416451 -0.146682 
-0.478212 -0.421599 -0.187569 
-0.478212 -0.427056 -0.228417 
-0.478212 -0.432822 -0.269221 
-0.478212 -0.438897 -0.309981 
-0.478212 -0.445281 -0.350694 
-0.478212 -0.451974 -0.391357 
-0.458972 -0.408728 0.470099 
-0.458972 -0.409194 0.429135 
-0.458972 -0.409972 0.388175 
-0.458972 -0.411059 0.347223 
-0.458972 -0.412458 0.306280 
-0.458972 -0.414167 0.265349 
-0.458972 -0.416188 0.224433 
-0.458972 -0.418518 0.183532 
-0.458972 -0.421157 0.142651 
-0.458972 -0.424108 0.101790 
-0.458972 -0.427369 0.060954 
-0.458972 -0.430942 0.020143 
-0.458972 -0.434821 -0.020639 
-0.458972 -0.439012 -0.061391 
-0.458972 -0.443508 -0.102110 
-0.458972 -0.448317 -0.142794 
-0.458972 -0.453431 -0.183440 
-0.458972 -0.458858 -0.224046 
-0.458972 -0.464589 -0.264609 
-0.458972 -0.470630 -0.305128 
-0.458972 -0.476976 -0.345600 
-0.458972 -0.483630 -0.386023 
-0.442971 -0.442558 0.470355 
-0.442971 -0.443024 0.429648 
-0.442971 -0.443794 0.388945 
-0.442971 -0.444877 0.348250 
-0.442971 -0.446265 0.307564 
-0.442971 -0.447962 0.266889 
-0.442971 -0.449972 0.226229 
-0.442971 -0.452287 0.185585 
-0.442971 -0.454911 0.144959 
-0.442971 -0.457843 0.104355 
-0.442971 -0.461085 0.063774 
-0.442971 -0.464631 0.023219 
-0.442971 -0.468487 -0.017307 
-0.442971 -0.472651 -0.057804 
-0.442971 -0.477121 -0.098268 
-0.442971 -0.481899 -0.138696 
-0.442971 -0.486982 -0.179088 
-0.442971 -0.492371 -0.219439 
-0.442971 -0.498068 -0.259748 
-0.442971 -0.504071 -0.300013 
-0.442971 -0.510379 -0.340232 
-0.442971 -0.516991 -0.380401 
-0.430363 -0.477796 0.470623 
-0.430363 -0.478253 0.430183 
-0.430363 -0.479024 0.389748 
-0.430363 -0.480095 0.349319 
-0.430363 -0.481476 0.308900 
-0.430363 -0.483165 0.268493 
-0.430363 -0.485160 0.228100 
-0.430363 -0.487459 0.187723 
-0.430363 -0.490064 0.147364 
-0.430363 -0.492977 0.107026 
-0.430363 -0.496196 0.066712 
-0.430363 -0.499724 0.026424 
-0.430363 -0.503552 -0.013837 
-0.430363 -0.507690 -0.054067 
-0.430363 -0.512129 -0.094266 
-0.430363 -0.516877 -0.134429 
-0.430363 -0.521926 -0.174554 
-0.430363 -0.527280 -0.214641 
-0.430363 -0.532940 -0.254686 
-0.430363 -0.538904 -0.294686 
-0.430363 -0.545170 -0.334640 
-0.430363 -0.551736 -0.374546 
-0.421269 -0.514097 0.470898 
-0.421269 -0.514554 0.430734 
-0.421269 -0.515317 0.390574 
-0.421269 -0.516381 0.350421 
-0.421269 -0.517754 0.310277 
-0.421269 -0.519428 0.270145 
-0.421269 -0.521411 0.230027 
-0.421269 -0.523695 0.189925 
-0.421269 -0.526285 0.149842 
-0.421269 -0.529176 0.109779 
-0.421269 -0.532375 0.069739 
-0.421269 -0.535876 0.029725 
-0.421269 -0.539678 -0.010262 
-0.421269 -0.543785 -0.050218 
-0.421269 -0.548198 -0.090142 
-0.421269 -0.552911 -0.130032 
-0.421269 -0.557926 -0.169884 
-0.421269 -0.563246 -0.209698 
-0.421269 -0.568867 -0.249470 
-0.421269 -0.574789 -0.289198 
-0.421269 -0.581009 -0.328880 
-0.421269 -0.587534 -0.368513 
-0.415778 -0.551115 0.471179 
-0.415778 -0.551569 0.431296 
-0.415778 -0.552324 0.391417 
-0.415778 -0.553384 0.351545 
-0.415778 -0.554745 0.311682 
-0.415778 -0.556412 0.271830 
-0.415778 -0.558376 0.231993 
-0.415778 -0.560645 0.192171 
-0.415778 -0.563215 0.152368 
-0.415778 -0.566091 0.112585 
-0.415778 -0.569264 0.072826 
-0.415778 -0.572742 0.033091 
-0.415778 -0.576517 -0.006615 
-0.415778 -0.580597 -0.046293 
-0.415778 -0.584975 -0.085938 
-0.415778 -0.589658 -0.125548 
-0.415778 -0.594639 -0.165122 
-0.415778 -0.599921 -0.204657 
-0.415778 -0.605500 -0.244151 
-0.415778 -0.611380 -0.283601 
-0.415778 -0.617562 -0.323006 
-0.415778 -0.624041 -0.362362 
-0.886458 -0.285772 -0.424984 
-0.854824 -0.285475 -0.423233 
-0.830170 -0.284346 -0.416530 
-0.891676 -0.280006 -0.390331 
-0.865697 -0.280158 -0.391263 
-0.847385 -0.280342 -0.392370 
-0.823253 -0.280040 -0.390535 
-0.846335 -0.276787 -0.370351 
-0.868999 -0.275304 -0.361000 
-0.894041 -0.274583 -0.356420 
-0.821231 -0.274579 -0.356387 
-0.845764 -0.271929 -0.339308 
-0.869999 -0.270243 -0.328276 
-0.894974 -0.269286 -0.321920 
-0.820621 -0.268817 -0.318799 
-0.845528 -0.266643 -0.304180 
-0.870306 -0.265076 -0.293455 
-0.895319 -0.264096 -0.286651 
-0.820433 -0.263097 -0.279697 
-0.845443 -0.261320 -0.267138 
-0.870405 -0.259958 -0.257366 
-0.895444 -0.259058 -0.250825 
-0.820375 -0.257567 -0.239901 
-0.845415 -0.256129 -0.229187 
-0.870439 -0.254989 -0.220597 
-0.895490 -0.254211 -0.214666 
-0.820358 -0.252285 -0.199775 
-0.845407 -0.251145 -0.190799 
-0.870452 -0.250222 -0.183478 
-0.895506 -0.249581 -0.178323 
-0.820352 -0.247278 -0.159481 
-0.845405 -0.246405 -0.152197 
-0.870457 -0.245688 -0.146181 
-0.895512 -0.245184 -0.141878 
-0.820350 -0.242557 -0.119095 
-0.845404 -0.241924 -0.113482 
-0.870459 -0.241398 -0.108789 
-0.895514 -0.241020 -0.105374 
-0.820350 -0.238126 -0.078651 
-0.845404 -0.237706 -0.074704 
-0.870459 -0.237355 -0.071341 
-0.895515 -0.237092 -0.068828 
-0.820350 -0.233984 -0.038164 
-0.895515 -0.233404 -0.032252 
-0.845404 -0.233759 -0.035881 
-0.870459 -0.233561 -0.033854 
-0.895515 -0.229961 0.004353 
-0.870459 -0.230022 0.003664 
-0.845404 -0.230083 0.002974 
-0.820350 -0.230140 0.002356 
-0.895516 -0.226754 0.040952 
-0.870460 -0.226734 0.041198 
-0.845404 -0.226677 0.041855 
-0.820350 -0.226590 0.042904 
-0.895516 -0.223787 0.077613 
-0.870459 -0.223699 0.078763 
-0.845404 -0.223543 0.080761 
-0.820350 -0.223337 0.083479 
-0.895515 -0.221064 0.114281 
-0.870459 -0.220915 0.116347 
-0.845404 -0.220682 0.119688 
-0.820350 -0.220373 0.124076 
-0.895515 -0.218577 0.150962 
-0.870459 -0.218387 0.153948 
-0.845404 -0.218089 0.158634 
-0.820350 -0.217708 0.164694 
-0.895515 -0.216335 0.187659 
-0.870459 -0.216110 0.191565 
-0.845404 -0.215767 0.197597 
-0.820350 -0.215340 0.205330 
-0.895515 -0.214333 0.224369 
-0.870459 -0.214085 0.229196 
-0.845404 -0.213719 0.236576 
-0.820352 -0.213265 0.245980 
-0.895513 -0.212571 0.261091 
-0.870453 -0.212315 0.266840 
-0.845405 -0.211942 0.275549 
-0.820361 -0.211488 0.286614 
-0.895477 -0.211049 0.297825 
-0.870400 -0.210801 0.304434 
-0.845400 -0.210443 0.314366 
-0.820397 -0.210012 0.327095 
-0.895306 -0.209772 0.334466 
-0.870225 -0.209551 0.341628 
-0.845419 -0.209234 0.352494 
-0.894877 -0.208750 0.370627 
-0.820552 -0.208841 0.367013 
-0.869825 -0.208578 0.377580 
-0.845594 -0.208327 0.388700 
-0.893899 -0.207976 0.405832 
-0.821139 -0.207983 0.405438 
-0.868792 -0.207880 0.411137 
-0.846156 -0.207720 0.420563 
-0.891558 -0.207438 0.440124 
-0.865539 -0.207415 0.441757 
-0.823174 -0.207434 0.440364 
-0.847242 -0.207404 0.442965 
-0.830103 -0.207163 0.466889 
-0.886407 -0.207106 0.474843 
-0.854758 -0.207114 0.473560 
0.179194 0.045473 -0.116542 
0.197263 0.048905 -0.083691 
0.162309 0.041789 -0.150002 
0.146785 0.037834 -0.184106 
0.132721 0.033597 -0.218838 
0.120157 0.029074 -0.254175 
0.109137 0.024266 -0.289984 
0.099629 0.019174 -0.326220 
0.091575 0.013797 -0.362810 
0.084903 0.008146 -0.399678 
0.079523 0.002219 -0.436739 
0.075297 -0.003966 -0.473903 
0.127767 0.041690 -0.150872 
0.143757 0.045396 -0.117267 
0.112968 0.037724 -0.185021 
0.160714 0.048859 -0.084131 
0.099494 0.033487 -0.219731 
0.087406 0.028968 -0.254978 
0.076702 0.024167 -0.290701 
0.067311 0.019087 -0.326837 
0.059113 0.013721 -0.363317 
0.051969 0.008085 -0.400064 
0.045730 0.002178 -0.436995 
0.040217 -0.003989 -0.474024 
0.092555 0.041629 -0.151413 
0.078418 0.037655 -0.185609 
0.107764 0.045351 -0.117696 
0.065498 0.033414 -0.220317 
0.123817 0.048832 -0.084376 
0.053849 0.028895 -0.255523 
0.043438 0.024102 -0.291191 
0.034148 0.019026 -0.327263 
0.025807 0.013668 -0.363669 
0.018229 0.008043 -0.400335 
0.011246 0.002147 -0.437178 
0.004696 -0.004004 -0.474116 
0.056920 0.041591 -0.151750 
0.043391 0.037609 -0.185986 
0.071439 0.045320 -0.117955 
0.030988 0.033365 -0.220701 
0.019752 0.028849 -0.255889 
0.086729 0.048821 -0.084517 
0.009615 0.024056 -0.291526 
0.000416 0.018980 -0.327556 
-0.008061 0.013633 -0.363914 
-0.016031 0.008012 -0.400524 
-0.023664 0.002128 -0.437308 
-0.031077 -0.004016 -0.474182 
0.021029 0.041568 -0.151966 
0.008065 0.037579 -0.186232 
0.034921 0.045305 -0.118117 
-0.003850 0.033334 -0.220957 
-0.014695 0.028815 -0.256138 
0.049537 0.048810 -0.084604 
-0.024572 0.024022 -0.291756 
-0.033683 0.018953 -0.327760 
-0.042287 0.013607 -0.364085 
-0.050618 0.007989 -0.400658 
-0.058833 0.002109 -0.437401 
-0.066998 -0.004023 -0.474230 
-0.015014 0.041549 -0.152110 
-0.027443 0.037560 -0.186400 
-0.038889 0.033311 -0.221134 
-0.001707 0.045293 -0.118224 
-0.049358 0.028792 -0.256312 
0.012286 0.048806 -0.084660 
-0.058983 0.023999 -0.291919 
-0.068011 0.018931 -0.327906 
-0.076736 0.013588 -0.364209 
-0.085406 0.007974 -0.400756 
-0.094159 0.002101 -0.437468 
-0.103007 -0.004027 -0.474265 
-0.051142 0.041537 -0.152215 
-0.063055 0.037544 -0.186523 
-0.074048 0.033296 -0.221264 
-0.038396 0.045286 -0.118301 
-0.084149 0.028777 -0.256442 
-0.024996 0.048802 -0.084702 
-0.093530 0.023983 -0.292042 
-0.102477 0.018915 -0.328017 
-0.111319 0.013572 -0.364303 
-0.120314 0.007963 -0.400831 
-0.129577 0.002090 -0.437521 
-0.139068 -0.004031 -0.474292 
-0.087318 0.041529 -0.152298 
-0.098727 0.037533 -0.186619 
-0.075119 0.045278 -0.118362 
-0.109275 0.033281 -0.221367 
-0.062294 0.048798 -0.084734 
-0.119015 0.028762 -0.256546 
-0.128156 0.023968 -0.292141 
-0.137024 0.018904 -0.328106 
-0.145979 0.013561 -0.364379 
-0.155290 0.007955 -0.400891 
-0.165050 0.002086 -0.437563 
-0.175159 -0.004035 -0.474314 
-0.123520 0.041522 -0.152369 
-0.134432 0.037525 -0.186702 
-0.111859 0.045274 -0.118414 
-0.144540 0.033269 -0.221456 
-0.099602 0.048794 -0.084762 
-0.153924 0.028750 -0.256635 
-0.162827 0.023957 -0.292225 
-0.171616 0.018892 -0.328182 
-0.180683 0.013553 -0.364444 
-0.190307 0.007947 -0.400942 
-0.200553 0.002078 -0.437598 
-0.159735 0.041514 -0.152434 
-0.170154 0.037514 -0.186777 
-0.148609 0.045267 -0.118463 
-0.179826 0.033262 -0.221535 
-0.211268 -0.004039 -0.474333 
-0.136914 0.048790 -0.084789 
-0.188856 0.028739 -0.256715 
-0.197522 0.023949 -0.292301 
-0.206234 0.018881 -0.328251 
-0.215413 0.013546 -0.364503 
-0.225346 0.007940 -0.400989 
-0.236073 0.002075 -0.437631 
-0.195957 0.041507 -0.152496 
-0.205885 0.037506 -0.186849 
-0.185362 0.045263 -0.118509 
-0.215122 0.033250 -0.221611 
-0.174228 0.048790 -0.084814 
-0.223800 0.028731 -0.256791 
-0.247386 -0.004042 -0.474349 
-0.232231 0.023938 -0.292373 
-0.240865 0.018873 -0.328316 
-0.250156 0.013534 -0.364559 
-0.260397 0.007932 -0.401033 
-0.271603 0.002067 -0.437661 
-0.232183 0.041499 -0.152556 
-0.241620 0.037499 -0.186918 
-0.222118 0.045259 -0.118555 
-0.250424 0.033243 -0.221685 
-0.211542 0.048787 -0.084839 
-0.258750 0.028720 -0.256864 
-0.266946 0.023926 -0.292443 
-0.283509 -0.004046 -0.474365 
-0.275503 0.018862 -0.328379 
-0.284906 0.013527 -0.364613 
-0.295454 0.007925 -0.401075 
-0.307137 0.002063 -0.437690 
-0.268410 0.041491 -0.152615 
-0.258875 0.045252 -0.118599 
-0.277358 0.037491 -0.186986 
-0.285729 0.033231 -0.221757 
-0.248858 0.048783 -0.084863 
-0.293703 0.028712 -0.256936 
-0.301665 0.023919 -0.292511 
-0.310145 0.018854 -0.328440 
-0.319636 -0.004046 -0.474379 
-0.319659 0.013519 -0.364665 
-0.330514 0.007917 -0.401116 
-0.342675 0.002059 -0.437718 
-0.304638 0.041488 -0.152674 
-0.295633 0.045248 -0.118643 
-0.313097 0.037483 -0.187054 
-0.286174 0.048783 -0.084887 
-0.321035 0.033224 -0.221829 
-0.328658 0.028701 -0.257008 
-0.336387 0.023911 -0.292579 
-0.344789 0.018847 -0.328502 
-0.355764 -0.004050 -0.474394 
-0.354414 0.013511 -0.364717 
-0.365577 0.007913 -0.401157 
-0.340867 0.041480 -0.152733 
-0.332390 0.045244 -0.118688 
-0.348837 0.037476 -0.187122 
-0.323490 0.048779 -0.084911 
-0.378214 0.002055 -0.437746 
-0.356342 0.033216 -0.221900 
-0.363614 0.028693 -0.257079 
-0.371108 0.023899 -0.292646 
-0.379434 0.018835 -0.328562 
-0.391893 -0.004054 -0.474408 
-0.389171 0.013504 -0.364769 
-0.400640 0.007905 -0.401197 
-0.369148 0.045240 -0.118732 
-0.377095 0.041472 -0.152792 
-0.384577 0.037464 -0.187190 
-0.360805 0.048775 -0.084935 
-0.391649 0.033205 -0.221972 
-0.398570 0.028682 -0.257150 
-0.413754 0.002048 -0.437774 
-0.405831 0.023892 -0.292714 
-0.414080 0.018827 -0.328623 
-0.423928 0.013496 -0.364821 
-0.428023 -0.004054 -0.474422 
-0.435704 0.007898 -0.401238 
-0.405907 0.045233 -0.118776 
-0.413325 0.041465 -0.152850 
-0.398121 0.048775 -0.084960 
-0.420317 0.037457 -0.187257 
-0.426956 0.033197 -0.222043 
-0.433526 0.028674 -0.257221 
-0.449294 0.002044 -0.437802 
-0.440553 0.023880 -0.292781 
-0.448725 0.018820 -0.328684 
-0.458685 0.013489 -0.364872 
-0.464152 -0.004058 -0.474436 
-0.470768 0.007894 -0.401278 
-0.442665 0.045229 -0.118820 
-0.449553 0.041461 -0.152909 
-0.435437 0.048772 -0.084984 
-0.456057 0.037449 -0.187325 
-0.462264 0.033189 -0.222114 
-0.468483 0.028663 -0.257292 
-0.475276 0.023873 -0.292848 
-0.484834 0.002040 -0.437830 
-0.483371 0.018812 -0.328744 
-0.493442 0.013481 -0.364924 
-0.500282 -0.004061 -0.474450 
-0.505832 0.007886 -0.401319 
-0.479423 0.045225 -0.118864 
-0.472753 0.048768 -0.085008 
-0.485782 0.041453 -0.152968 
-0.491797 0.037441 -0.187392 
-0.497572 0.033178 -0.222186 
-0.503439 0.028655 -0.257363 
-0.509998 0.023861 -0.292916 
-0.520374 0.002036 -0.437857 
-0.518017 0.018801 -0.328805 
-0.528199 0.013473 -0.364975 
-0.536412 -0.004061 -0.474464 
-0.540896 0.007879 -0.401359 
-0.516181 0.045221 -0.118909 
-0.510069 0.048768 -0.085032 
-0.522011 0.041446 -0.153027 
-0.527537 0.037434 -0.187460 
-0.532879 0.033170 -0.222257 
-0.538396 0.028644 -0.257435 
-0.544721 0.023854 -0.292983 
-0.555915 0.002033 -0.437885 
-0.552663 0.018793 -0.328866 
-0.562956 0.013466 -0.365028 
-0.572541 -0.004065 -0.474478 
-0.575960 0.007875 -0.401401 
-0.547385 0.048764 -0.085057 
-0.552939 0.045213 -0.118954 
-0.558240 0.041438 -0.153087 
-0.563277 0.037426 -0.187530 
-0.568187 0.033159 -0.222333 
-0.573352 0.028636 -0.257511 
-0.579444 0.023842 -0.293057 
-0.587309 0.018782 -0.328935 
-0.591454 0.002029 -0.437913 
-0.597713 0.013454 -0.365087 
-0.608670 -0.004065 -0.474492 
-0.611019 0.007867 -0.401446 
-0.584700 0.048760 -0.085084 
-0.589697 0.045210 -0.119004 
-0.594469 0.041430 -0.153157 
-0.599017 0.037415 -0.187616 
-0.603495 0.033147 -0.222428 
-0.608309 0.028621 -0.257612 
-0.614166 0.023831 -0.293160 
-0.621952 0.018770 -0.329033 
-0.626986 0.002021 -0.437942 
-0.632459 0.013443 -0.365171 
-0.644792 -0.004069 -0.474505 
-0.622016 0.048760 -0.085120 
-0.626456 0.045202 -0.119078 
-0.630699 0.041419 -0.153265 
-0.646055 0.007856 -0.401505 
-0.634758 0.037400 -0.187754 
-0.638802 0.033128 -0.222591 
-0.643266 0.028598 -0.257796 
-0.648886 0.023800 -0.293355 
-0.656577 0.018744 -0.329221 
-0.662485 0.002017 -0.437972 
-0.667152 0.013420 -0.365323 
-0.659333 0.048752 -0.085187 
-0.663215 0.045187 -0.119218 
-0.666929 0.041396 -0.153479 
-0.670499 0.037365 -0.188037 
-0.674111 0.033083 -0.222937 
-0.680887 -0.004069 -0.474514 
-0.680997 0.007844 -0.401595 
-0.678220 0.028544 -0.258192 
-0.683581 0.023743 -0.293774 
-0.691123 0.018686 -0.329610 
-0.697871 0.002014 -0.437999 
-0.701676 0.013378 -0.365614 
-0.696649 0.048737 -0.085327 
-0.699974 0.045156 -0.119509 
-0.703160 0.041347 -0.153921 
-0.706241 0.037293 -0.188624 
-0.709418 0.032995 -0.223655 
-0.715676 0.007822 -0.401737 
-0.713152 0.028438 -0.259006 
-0.716901 -0.004069 -0.474510 
-0.718193 0.023629 -0.294617 
-0.725457 0.018576 -0.330370 
-0.732957 0.002014 -0.438001 
-0.735796 0.013294 -0.366154 
-0.733966 0.048710 -0.085600 
-0.736734 0.045095 -0.120065 
-0.739391 0.041251 -0.154756 
-0.741983 0.037163 -0.189722 
-0.744711 0.032827 -0.224980 
-0.749750 0.007787 -0.401948 
-0.748021 0.028243 -0.260490 
-0.752703 -0.004061 -0.474459 
-0.752619 0.023419 -0.296133 
-0.759370 0.018381 -0.331725 
-0.767359 0.002029 -0.437901 
-0.769140 0.013153 -0.367096 
-0.771284 0.048661 -0.086066 
-0.773495 0.044996 -0.120996 
-0.775624 0.041091 -0.156135 
-0.777719 0.036950 -0.191514 
-0.779971 0.032556 -0.227123 
-0.782641 0.007742 -0.402237 
-0.782776 0.027927 -0.262875 
-0.786745 0.023080 -0.298585 
-0.788019 -0.004027 -0.474261 
-0.792632 0.018057 -0.333963 
-0.800344 0.002094 -0.437497 
-0.801254 0.012913 -0.368700 
-0.808602 0.048592 -0.086756 
-0.810258 0.044847 -0.122357 
-0.813496 0.007677 -0.402658 
-0.811856 0.040866 -0.158130 
-0.813446 0.036637 -0.194086 
-0.815184 0.032167 -0.230188 
-0.817385 0.027469 -0.266310 
-0.820513 0.022576 -0.302207 
-0.822259 -0.003920 -0.473625 
-0.825122 0.017546 -0.337464 
-0.830542 0.002284 -0.436338 
-0.831813 0.012489 -0.371493 
-0.841343 0.007528 -0.403601 
-0.845921 0.048501 -0.087656 
-0.847023 0.044657 -0.124113 
-0.848090 0.040572 -0.160686 
-0.849162 0.036240 -0.197368 
-0.850346 0.031672 -0.234103 
-0.851863 0.026870 -0.270787 
-0.853987 0.021882 -0.307141 
-0.854087 -0.003592 -0.471685 
-0.855425 0.002727 -0.433629 
-0.857007 0.016783 -0.342689 
-0.861086 0.011719 -0.376541 
-0.866018 0.007017 -0.406835 
-0.870627 0.003482 -0.428974 
-0.883244 0.048394 -0.088699 
-0.883794 0.044436 -0.126138 
-0.880124 -0.002586 -0.465720 
-0.884330 0.040233 -0.163621 
-0.884874 0.035783 -0.201140 
-0.885484 0.031088 -0.238658 
-0.886263 0.026157 -0.276097 
-0.887332 0.021017 -0.313287 
-0.888778 0.015719 -0.349908 
-0.890518 0.010369 -0.385349 
-0.890744 0.000618 -0.446498 
-0.891963 0.005183 -0.418379 
0.111057 -0.430161 -0.399046 
0.113649 -0.423674 -0.362267 
0.117964 -0.417217 -0.325645 
0.123991 -0.410803 -0.289259 
0.131718 -0.404442 -0.253185 
0.141128 -0.398150 -0.217502 
0.152202 -0.391937 -0.182285 
0.164915 -0.385824 -0.147608 
0.179242 -0.379818 -0.113547 
0.195150 -0.373934 -0.080174 
0.212606 -0.368183 -0.047560 
0.231574 -0.362577 -0.015775 
0.252011 -0.357131 0.015113 
0.273875 -0.351857 0.045040 
0.297119 -0.346758 0.073939 
0.321694 -0.341854 0.101751 
0.347547 -0.337156 0.128416 
0.374623 -0.332663 0.153876 
0.402863 -0.328396 0.178077 
0.432209 -0.324361 0.200968 
0.462597 -0.320563 0.222500 
0.493962 -0.317016 0.242627 
0.526237 -0.313722 0.261306 
0.559354 -0.310690 0.278497 
0.593242 -0.307929 0.294164 
0.627829 -0.305439 0.308272 
0.663040 -0.303234 0.320793 
0.698801 -0.301308 0.331698 
0.735035 -0.299676 0.340966 
0.771665 -0.298334 0.348575 
0.808613 -0.297289 0.354511 
0.845799 -0.296538 0.358760 
0.883145 -0.296088 0.361313 
0.111057 -0.465836 -0.392755 
0.113649 -0.459349 -0.355976 
0.117964 -0.452893 -0.319355 
0.123991 -0.446479 -0.282968 
0.131718 -0.440118 -0.246895 
0.141128 -0.433825 -0.211211 
0.152202 -0.427613 -0.175994 
0.164915 -0.421500 -0.141318 
0.179242 -0.415494 -0.107257 
0.195150 -0.409609 -0.073884 
0.212606 -0.403859 -0.041269 
0.231574 -0.398253 -0.009484 
0.252011 -0.392807 0.021404 
0.273875 -0.387533 0.051330 
0.297119 -0.382434 0.080230 
0.321694 -0.377530 0.108042 
0.347547 -0.372832 0.134706 
0.374623 -0.368339 0.160166 
0.402863 -0.364072 0.184368 
0.432209 -0.360037 0.207259 
0.462597 -0.356239 0.228791 
0.493962 -0.352692 0.248918 
0.526237 -0.349397 0.267597 
0.559354 -0.346365 0.284788 
0.593242 -0.343604 0.300454 
0.627829 -0.341114 0.314563 
0.663040 -0.338906 0.327083 
0.698801 -0.336984 0.337989 
0.735035 -0.335352 0.347256 
0.771665 -0.334010 0.354866 
0.808613 -0.332965 0.360802 
0.845799 -0.332213 0.365050 
0.883145 -0.331763 0.367603 
0.111057 -0.501512 -0.386465 
0.113649 -0.495025 -0.349686 
0.117964 -0.488569 -0.313064 
0.123991 -0.482151 -0.276678 
0.131718 -0.475794 -0.240604 
0.141128 -0.469501 -0.204921 
0.152202 -0.463289 -0.169703 
0.164915 -0.457176 -0.135027 
0.179242 -0.451169 -0.100966 
0.195150 -0.445285 -0.067593 
0.212606 -0.439534 -0.034979 
0.231574 -0.433928 -0.003194 
0.252011 -0.428483 0.027695 
0.273875 -0.423208 0.057621 
0.297119 -0.418110 0.086521 
0.321694 -0.413206 0.114332 
0.347547 -0.408503 0.140997 
0.374623 -0.404015 0.166457 
0.402863 -0.399748 0.190658 
0.432209 -0.395713 0.213549 
0.462597 -0.391915 0.235081 
0.493962 -0.388368 0.255209 
0.526237 -0.385073 0.273887 
0.559354 -0.382041 0.291078 
0.593242 -0.379280 0.306745 
0.627829 -0.376790 0.320854 
0.663040 -0.374582 0.333374 
0.698801 -0.372660 0.344280 
0.735035 -0.371028 0.353547 
0.771665 -0.369685 0.361157 
0.808612 -0.368637 0.367092 
0.845799 -0.367889 0.371341 
0.883145 -0.367439 0.373894 
0.111057 -0.537188 -0.380174 
0.113649 -0.530701 -0.343396 
